ply
format ascii 1.0
element vertex 1961
property float x
property float y
property float z
property uchar red
property uchar green
property uchar blue
end_header
241 193 594 157 160 162
242 193 594 158 162 163
244 193 594 159 163 164
245 193 594 159 163 164
247 193 594 158 162 163
248 193 594 159 163 164
249 193 593 158 162 163
250 193 593 157 161 162
251 193 592 158 162 163
253 193 592 159 163 164
254 193 592 158 163 164
256 194 592 159 163 165
258 194 593 160 164 165
259 194 593 160 164 165
260 194 593 160 164 165
262 195 594 160 164 165
264 195 594 159 163 164
265 195 593 157 161 162
266 195 593 157 161 162
269 195 595 158 162 163
270 195 594 159 163 164
271 195 594 159 163 165
273 196 594 161 165 167
275 196 595 159 163 165
276 196 595 159 163 164
278 197 596 160 164 165
280 197 597 160 162 164
282 198 598 161 163 165
283 197 597 161 163 165
284 197 597 161 163 165
286 197 596 161 163 165
287 197 596 163 165 167
289 198 596 163 165 167
290 198 596 164 166 168
292 198 596 162 164 166
293 198 596 161 163 165
295 198 596 161 163 165
296 198 596 160 162 164
298 198 596 161 163 165
300 199 598 160 162 164
301 199 597 159 161 163
303 199 597 161 163 165
304 199 596 162 164 166
305 199 596 163 165 167
222 419 1338 178 181 187
223 417 1330 177 180 186
225 416 1327 177 180 186
228 415 1324 176 179 185
230 415 1323 176 179 185
233 415 1324 176 179 185
236 415 1324 176 179 185
239 415 1324 175 178 184
242 415 1323 175 178 184
245 416 1324 177 180 186
247 415 1322 176 179 185
249 414 1317 175 178 184
250 412 1310 174 177 183
251 408 1298 174 177 183
242 389 1239 173 176 182
250 398 1265 172 176 180
256 404 1284 174 178 181
260 405 1288 174 178 181
262 405 1286 174 177 181
262 400 1271 173 177 180
269 407 1294 173 177 180
274 411 1306 174 178 181
279 414 1314 175 179 182
283 415 1318 176 180 183
285 415 1318 176 180 183
288 415 1317 177 181 184
291 415 1316 177 181 184
294 416 1318 176 180 183
297 417 1321 175 179 182
301 418 1324 176 180 183
304 419 1326 175 180 183
307 419 1327 176 180 183
310 420 1328 176 180 183
313 420 1328 175 179 182
316 420 1328 174 178 181
319 420 1328 174 178 181
322 421 1329 174 178 181
325 420 1328 174 178 181
328 420 1328 174 178 181
331 421 1328 173 177 180
333 421 1328 173 177 180
336 421 1328 173 177 180
340 422 1330 173 177 180
343 423 1333 172 176 179
348 425 1338 172 176 179
355 429 1353 172 176 179
211 238 747 172 176 179
211 237 743 172 176 179
212 236 739 173 177 180
212 234 735 173 177 180
212 233 731 171 175 178
213 232 727 171 175 178
213 231 723 171 175 178
214 230 721 171 175 178
215 230 719 170 174 177
217 230 719 169 173 176
219 230 719 168 172 175
221 230 720 169 173 176
223 231 722 168 172 175
225 232 723 171 175 178
226 232 723 170 174 177
228 232 723 169 173 176
230 232 723 168 172 175
230 231 720 168 172 175
231 230 716 168 172 175
231 229 713 170 174 176
232 228 710 170 174 176
233 228 708 170 174 176
233 227 705 169 173 176
234 226 702 168 172 175
235 225 699 167 171 174
236 224 697 167 171 174
235 223 692 166 170 173
236 222 689 165 169 172
236 221 684 165 169 172
236 219 680 164 168 171
235 217 673 164 168 171
235 215 667 163 167 170
233 213 659 162 166 169
232 210 651 160 164 167
231 208 643 160 164 165
229 206 635 160 164 166
228 203 628 161 165 167
227 202 622 161 165 167
227 200 616 160 164 166
227 198 612 160 164 165
226 197 607 158 162 163
227 196 605 157 161 162
227 196 602 157 161 162
228 195 601 156 161 162
229 195 599 156 162 163
230 195 598 154 160 161
230 194 596 154 159 160
231 194 595 156 160 161
232 194 594 157 161 162
234 194 594 157 161 162
235 193 593 157 159 161
236 194 593 157 159 161
238 194 593 157 159 161
239 193 592 157 160 162
240 193 591 157 160 162
241 193 590 157 161 162
242 193 590 158 162 163
243 193 589 158 162 163
245 193 589 159 163 164
246 193 589 159 163 164
247 193 589 159 163 164
248 193 588 159 164 165
250 193 588 159 163 164
251 193 588 158 162 163
253 193 588 159 163 165
254 194 588 160 163 166
256 194 589 160 163 165
257 194 589 160 163 166
259 194 589 161 164 167
261 195 590 161 165 168
262 195 590 159 162 165
263 195 589 158 162 163
265 195 589 158 162 163
267 196 591 158 162 163
268 196 591 156 160 161
270 196 591 159 163 164
271 196 591 160 164 165
273 196 592 158 162 163
274 196 591 159 163 164
276 197 592 160 164 165
278 197 593 160 164 165
280 198 594 158 162 163
281 197 593 160 164 165
283 198 594 160 162 164
284 198 593 162 164 166
286 198 593 163 165 167
287 198 593 162 164 166
289 198 593 161 163 165
290 198 593 161 163 165
292 198 593 161 163 165
293 199 593 160 162 164
295 199 593 160 162 164
296 199 593 160 162 164
299 200 595 159 161 163
300 199 594 160 162 164
301 200 594 162 164 166
302 199 593 161 163 165
305 200 594 160 162 164
222 422 1337 177 180 186
223 420 1330 176 179 185
226 419 1328 176 179 185
228 418 1325 175 178 184
231 418 1324 175 178 184
234 418 1325 176 179 185
236 418 1325 177 180 186
239 418 1324 177 180 186
242 418 1324 176 179 185
245 418 1324 176 179 185
247 418 1322 176 179 185
249 417 1318 175 178 184
251 415 1312 173 176 182
252 412 1303 173 176 182
246 399 1260 172 175 180
246 394 1246 173 177 180
258 409 1293 172 176 179
262 411 1299 172 176 180
264 410 1294 172 176 180
264 406 1280 172 175 180
266 405 1279 172 176 179
273 411 1297 173 177 180
277 414 1306 175 179 182
282 417 1313 174 178 181
285 418 1317 174 178 181
288 418 1317 175 179 182
291 418 1316 175 179 182
294 419 1318 176 180 183
297 420 1320 176 179 184
301 421 1323 175 178 184
304 422 1326 175 178 184
308 422 1327 175 178 182
311 423 1328 174 178 181
313 423 1328 173 177 180
316 423 1328 173 177 180
319 423 1328 172 176 179
322 423 1328 173 177 180
325 423 1328 173 177 180
328 423 1328 174 178 181
331 424 1328 172 176 179
333 423 1327 172 176 179
336 424 1327 172 176 179
340 424 1329 172 176 179
343 425 1331 172 176 179
347 426 1334 172 176 179
351 428 1340 172 176 179
357 432 1352 172 176 179
208 240 748 173 177 180
208 239 745 173 177 180
209 238 743 172 176 179
210 237 740 171 175 178
211 236 736 171 175 178
211 235 732 171 175 178
212 234 728 172 176 179
212 233 725 172 176 179
213 232 721 172 176 179
214 231 718 171 175 178
215 230 716 170 174 177
216 231 716 170 174 177
217 230 715 169 173 176
219 230 715 169 173 176
221 231 717 168 172 175
224 232 719 170 174 177
225 232 719 170 174 177
227 232 719 169 173 176
229 233 720 168 172 175
230 232 718 168 172 175
231 231 716 169 173 176
231 230 712 169 173 176
232 230 710 169 173 176
233 229 707 170 174 177
234 228 705 169 173 176
234 228 703 168 172 175
235 227 701 168 172 175
236 227 699 167 171 173
237 226 696 166 170 172
237 225 692 165 169 170
237 223 688 163 167 168
238 222 684 162 166 167
237 221 679 161 165 166
237 219 674 161 165 167
236 217 666 159 163 166
234 214 657 159 163 165
232 211 648 160 164 165
231 208 639 161 165 166
229 205 630 161 165 166
227 203 622 160 164 165
226 201 615 160 164 165
226 199 609 159 162 163
225 198 605 157 160 161
226 197 602 156 160 161
226 196 600 156 160 161
227 196 598 156 161 161
228 195 597 157 162 163
229 195 595 157 161 162
229 194 593 157 161 162
230 194 591 157 161 162
231 194 590 157 161 162
232 194 590 157 161 162
233 194 589 157 161 162
235 194 590 158 162 163
237 194 590 157 161 162
238 194 589 158 162 163
239 194 588 159 163 164
240 193 587 156 160 162
241 193 586 156 161 163
242 193 586 156 161 163
243 193 585 157 162 164
244 193 585 157 162 164
246 193 585 156 160 163
247 193 585 160 164 167
249 194 585 161 165 168
250 194 585 159 163 166
251 194 585 159 162 165
253 194 585 160 162 166
255 194 586 160 162 166
256 195 586 160 163 167
258 195 586 160 163 167
259 195 586 160 164 167
261 195 586 158 162 163
262 195 586 156 160 161
263 195 586 158 162 163
265 196 587 158 162 163
266 195 586 156 160 161
268 196 587 157 161 162
270 196 588 158 162 163
272 197 589 158 162 163
274 197 589 158 162 163
275 197 590 159 163 164
277 198 591 159 162 163
279 198 591 159 163 164
280 198 591 159 163 164
282 198 591 160 164 165
283 198 591 160 164 165
285 199 591 160 164 165
286 199 591 160 164 165
287 198 590 160 163 165
289 199 590 161 163 165
290 199 590 158 160 162
292 199 590 158 160 162
293 199 590 157 159 161
295 200 591 157 159 161
297 200 591 160 162 164
298 200 590 160 162 164
300 200 591 161 163 165
302 200 591 162 164 166
222 424 1336 176 181 184
223 423 1330 176 182 184
226 422 1328 176 181 183
228 421 1326 175 180 181
231 421 1325 175 179 181
234 421 1325 175 178 183
237 421 1325 176 179 184
239 421 1324 177 181 184
242 421 1324 176 180 184
245 421 1324 175 179 182
247 421 1323 174 178 181
250 420 1320 173 177 180
251 418 1313 174 177 179
253 417 1308 173 177 178
252 411 1289 173 177 178
245 396 1241 173 177 178
259 414 1297 172 175 179
263 416 1303 172 175 181
266 415 1302 172 175 181
268 414 1298 172 175 181
267 410 1284 173 176 180
268 407 1275 174 178 181
276 414 1297 175 179 182
280 417 1306 172 176 179
284 419 1311 172 176 179
288 420 1314 172 176 179
291 421 1316 174 177 180
294 421 1317 175 178 182
297 422 1319 175 178 183
301 424 1323 175 178 184
304 424 1325 174 177 183
307 425 1326 173 176 181
310 425 1326 173 177 180
313 425 1326 173 177 180
316 425 1326 172 176 179
319 425 1326 172 176 179
322 426 1327 173 177 180
325 426 1327 173 177 180
328 426 1327 172 176 179
331 426 1327 171 175 178
334 426 1327 171 175 178
336 427 1327 171 175 178
339 427 1327 170 174 177
343 427 1329 170 174 177
346 428 1331 170 174 177
350 430 1335 170 174 177
355 432 1342 172 176 179
208 240 743 171 175 178
209 240 742 171 175 178
210 239 740 173 176 179
211 238 736 172 176 179
211 237 732 171 175 178
212 235 727 172 176 179
212 234 724 171 175 178
212 233 719 170 174 177
213 232 716 170 174 177
213 231 712 170 174 177
215 231 712 170 174 177
216 231 711 170 174 177
218 231 711 169 173 176
220 231 712 168 172 175
222 232 714 169 173 176
224 232 714 170 174 177
226 233 716 170 174 177
228 233 716 168 172 175
229 233 715 168 172 175
230 232 713 168 172 175
230 231 710 168 173 175
231 231 708 169 173 176
232 230 706 170 174 177
234 230 705 169 173 176
235 230 704 168 172 175
236 229 702 167 171 174
237 229 701 166 170 172
238 228 698 166 170 171
238 227 694 164 168 170
238 226 690 163 167 169
239 225 687 162 166 168
239 224 683 163 167 168
239 222 678 160 164 167
238 220 672 159 163 165
237 218 665 160 164 165
235 215 656 161 165 166
233 212 646 161 165 166
231 209 635 160 164 165
229 205 625 159 163 164
227 202 616 158 162 163
226 200 609 158 162 163
225 198 603 158 162 163
225 198 600 158 162 163
225 197 597 158 162 161
226 196 595 159 163 163
227 196 593 160 164 165
228 195 592 159 163 164
228 195 590 158 162 163
229 194 588 158 162 163
230 194 587 157 161 162
231 194 586 158 162 163
232 194 585 157 161 162
234 194 586 157 161 162
235 194 586 156 160 161
237 194 586 157 161 162
237 194 584 156 161 163
238 194 584 155 161 164
239 194 583 157 163 166
240 193 582 157 163 166
242 193 582 156 162 165
243 194 582 156 161 163
245 194 582 157 161 163
246 193 581 159 163 164
247 194 581 160 164 165
248 194 581 160 164 165
250 194 582 158 162 164
252 194 582 158 162 165
254 195 583 158 162 165
255 195 583 159 163 166
256 195 583 159 163 166
258 195 583 159 163 165
259 195 583 158 162 163
261 195 583 156 160 161
263 196 584 158 162 163
264 196 584 158 162 163
266 196 584 158 162 163
267 196 584 158 162 163
268 196 584 157 161 162
270 197 585 159 163 164
272 197 585 158 162 163
274 197 586 158 162 163
275 198 586 158 162 163
278 198 588 159 162 163
279 198 587 159 163 164
280 198 587 158 162 163
282 198 587 158 162 163
284 199 588 159 163 164
284 198 586 160 164 165
286 199 587 160 164 165
288 199 587 159 162 163
290 199 588 157 159 161
291 200 588 156 158 160
293 200 589 156 159 161
295 200 589 158 161 162
296 200 589 158 162 162
297 200 588 159 162 162
299 201 589 162 164 164
300 200 587 164 166 166
222 427 1336 177 182 184
224 426 1331 176 181 183
226 425 1328 177 182 184
228 424 1326 177 181 184
231 424 1325 176 180 183
234 425 1326 177 180 185
237 425 1326 177 180 185
239 424 1325 176 180 183
242 425 1325 175 179 182
245 425 1325 175 179 182
248 424 1324 174 178 181
250 424 1321 174 178 181
252 422 1316 174 178 181
254 421 1311 173 177 180
254 417 1300 173 177 180
245 397 1237 173 177 180
259 416 1295 174 177 180
264 420 1307 174 176 182
267 420 1307 173 175 181
269 419 1305 173 175 181
270 417 1297 174 176 180
270 413 1284 175 177 181
271 409 1273 174 178 181
278 417 1296 173 177 180
283 420 1306 172 176 179
287 422 1311 173 177 180
290 423 1313 173 177 180
294 424 1315 173 178 181
297 424 1317 173 176 181
301 426 1321 173 176 182
304 427 1323 173 176 182
307 427 1325 171 175 179
310 428 1326 172 176 179
313 428 1326 172 176 179
316 428 1326 171 175 178
319 428 1326 171 175 178
322 428 1326 171 175 178
325 429 1326 171 175 178
328 429 1327 171 175 178
331 429 1327 172 175 179
333 429 1326 170 174 177
337 429 1327 170 174 177
339 430 1327 170 174 177
343 430 1328 170 174 177
346 431 1329 170 174 177
349 432 1332 170 174 177
353 433 1334 170 174 177
358 436 1343 169 173 176
211 237 726 168 172 175
212 236 723 168 172 175
212 234 718 167 171 174
213 233 715 168 172 175
214 232 712 169 173 176
215 232 710 169 173 176
216 232 709 170 174 177
217 232 709 169 173 176
219 232 709 170 174 177
221 232 710 170 174 177
223 232 710 170 174 176
224 233 711 169 173 176
226 233 712 168 172 175
228 233 711 167 171 174
229 233 710 168 172 175
230 232 708 169 173 176
231 232 707 169 173 176
232 231 705 170 174 177
233 231 704 169 173 176
235 231 703 168 172 175
236 231 702 167 171 174
237 231 701 166 170 173
238 230 699 164 168 171
238 229 695 164 168 171
239 228 692 163 167 170
239 227 689 163 167 169
240 226 685 163 167 168
240 225 681 162 166 168
240 223 677 162 166 168
239 222 671 163 167 168
238 219 663 162 166 167
236 216 653 161 165 166
234 213 643 160 164 165
231 208 630 160 164 165
228 205 619 159 163 164
226 202 610 158 162 163
225 200 603 157 161 162
224 198 597 156 160 161
224 197 594 159 163 164
225 196 592 160 164 165
226 196 590 161 165 166
227 196 589 160 164 165
227 195 587 159 163 164
228 195 585 158 162 163
228 194 583 158 162 163
230 194 583 157 161 162
231 194 582 156 160 161
232 194 582 156 160 161
234 194 582 157 161 162
235 194 581 156 160 161
236 194 580 156 161 162
237 194 580 155 161 162
238 194 579 157 163 164
239 194 579 158 164 165
240 193 578 158 163 164
242 194 578 158 162 163
243 194 578 158 162 163
245 194 578 158 162 163
245 194 577 159 163 164
247 194 577 159 163 164
249 194 578 157 162 163
251 195 579 156 161 164
252 195 579 157 161 162
253 195 579 157 161 162
255 195 579 157 161 162
256 195 579 157 161 162
258 195 579 157 161 162
260 196 580 156 160 161
261 196 580 158 161 162
262 196 580 159 163 164
264 196 580 157 162 163
265 196 580 156 162 163
267 197 581 155 160 161
269 197 582 159 163 164
271 197 582 159 163 164
272 198 583 157 161 162
274 198 583 158 162 163
276 198 584 157 161 162
277 199 584 157 161 162
279 199 585 157 161 162
281 199 585 159 163 163
282 199 585 159 163 164
283 199 583 161 165 166
284 199 583 159 163 164
286 199 584 156 160 161
288 200 584 156 160 161
290 200 585 155 159 159
292 201 586 156 160 161
293 201 586 157 161 162
295 201 587 156 159 160
296 201 586 156 159 158
298 201 586 160 162 162
221 435 1350 177 181 184
222 430 1336 178 181 186
224 429 1332 177 180 186
226 428 1328 177 180 186
229 427 1326 177 180 186
231 427 1324 176 179 185
234 427 1326 177 180 186
237 427 1325 177 180 185
239 427 1324 175 179 183
242 427 1325 174 178 181
245 428 1325 174 178 181
248 427 1324 175 179 182
250 427 1322 175 179 182
252 426 1318 174 177 180
254 424 1312 173 177 180
255 421 1303 173 177 180
245 400 1239 173 177 180
256 415 1283 172 176 179
263 421 1303 174 176 182
267 424 1310 173 175 181
270 424 1311 171 173 179
272 423 1306 170 174 177
273 420 1298 170 174 177
271 413 1275 171 175 178
273 412 1272 171 175 178
281 420 1297 171 176 179
285 422 1302 170 176 179
289 423 1305 170 176 179
293 425 1311 169 175 178
296 426 1314 170 175 179
300 428 1318 170 173 179
303 429 1320 171 174 180
307 430 1324 171 174 179
310 430 1325 171 175 178
313 430 1324 171 175 178
316 431 1325 170 174 177
319 431 1325 169 173 176
322 431 1325 170 174 177
325 431 1325 170 174 177
328 432 1327 170 174 177
331 432 1328 170 174 177
334 432 1327 170 174 177
337 433 1328 169 173 176
340 433 1327 169 173 176
343 433 1327 168 172 175
345 433 1327 168 172 175
349 434 1329 168 172 175
352 435 1331 169 173 176
356 436 1335 168 173 175
362 439 1344 168 172 175
212 237 723 168 172 175
212 236 718 168 172 175
213 235 714 168 172 175
213 233 710 168 172 175
214 233 709 168 172 175
215 233 707 168 172 175
217 232 706 168 172 175
218 232 706 170 174 177
220 233 707 169 173 176
221 233 706 167 171 174
223 233 707 167 171 174
225 233 707 167 171 174
226 233 707 167 171 173
228 233 706 168 172 175
229 233 705 169 173 176
230 233 704 169 173 176
232 233 704 168 172 175
233 232 703 168 172 174
234 232 702 167 171 172
236 232 702 167 171 172
237 232 701 166 170 171
238 232 699 165 169 170
239 231 696 164 168 169
239 230 693 164 168 169
240 229 690 164 168 169
240 228 687 165 169 170
241 227 684 164 168 169
241 226 680 163 167 168
241 224 675 162 166 167
241 223 670 161 165 166
239 220 661 161 165 166
237 217 651 161 165 166
234 213 639 161 165 166
231 209 626 160 164 165
228 205 614 158 162 163
226 202 605 157 161 162
225 200 598 159 163 164
224 198 593 160 164 165
224 197 590 160 164 165
225 196 587 161 165 166
226 196 586 160 164 165
226 195 584 159 163 164
227 195 582 158 162 163
228 195 582 158 162 163
229 195 581 158 161 162
230 194 579 157 161 162
231 194 579 157 161 162
232 194 578 157 161 162
233 194 577 157 161 162
234 194 576 157 162 163
235 194 576 156 161 162
236 194 575 157 161 162
238 194 575 159 163 164
239 194 575 158 162 163
241 194 575 159 163 164
242 194 574 158 162 163
243 194 574 158 162 163
244 194 573 157 161 162
245 194 573 157 161 162
247 194 574 157 161 163
249 195 575 156 161 163
251 195 576 158 162 163
252 195 576 156 160 161
254 195 576 157 161 162
255 195 576 156 160 161
256 196 576 155 159 160
258 196 576 155 159 160
260 196 577 156 160 161
261 196 577 158 162 163
263 196 577 156 161 162
264 196 576 155 161 163
265 197 577 154 160 162
267 197 578 155 160 161
269 197 578 156 162 163
271 198 579 156 162 163
272 198 579 156 162 162
274 198 580 157 161 160
276 199 580 158 162 161
278 199 581 159 163 162
279 199 580 159 163 163
280 199 581 158 162 163
281 199 580 158 162 163
283 200 581 158 162 163
285 200 581 157 161 162
286 200 581 158 160 162
288 200 581 157 159 161
290 201 583 158 160 162
291 201 582 158 160 162
294 202 584 156 158 159
295 201 583 157 159 159
221 438 1350 176 180 183
222 434 1338 177 181 184
224 432 1333 177 181 185
226 431 1329 176 179 185
229 430 1326 176 179 185
231 430 1325 174 177 183
234 430 1326 174 177 183
237 430 1325 174 177 183
239 430 1324 174 177 183
242 430 1325 173 176 182
245 431 1325 174 177 182
248 430 1324 174 178 181
250 430 1323 171 175 178
253 429 1320 171 175 178
255 428 1315 172 176 179
256 426 1308 172 176 179
252 414 1273 171 175 178
247 403 1237 171 175 178
264 425 1306 171 174 180
268 427 1311 170 173 179
271 428 1314 170 172 177
273 427 1311 169 173 176
275 426 1306 170 174 177
276 423 1297 171 175 178
273 415 1272 173 177 180
277 416 1276 173 177 180
283 422 1293 173 177 180
288 424 1299 172 176 179
291 426 1304 171 175 178
295 427 1307 171 174 179
299 429 1314 170 173 179
303 431 1318 170 173 179
307 432 1322 170 173 177
310 433 1324 169 173 176
313 433 1324 169 173 176
316 434 1325 169 173 175
319 434 1324 168 172 175
322 434 1325 169 173 176
325 435 1326 169 173 176
328 435 1327 168 172 175
331 435 1328 167 171 174
334 436 1328 170 174 177
337 436 1328 169 173 176
340 436 1327 168 173 175
343 436 1327 167 171 174
346 436 1327 167 171 174
349 436 1328 169 173 175
352 437 1328 168 172 175
355 437 1330 166 170 173
359 439 1334 165 169 172
364 442 1342 166 170 173
212 237 717 167 171 174
212 236 713 168 172 175
213 235 709 168 172 175
214 234 707 167 171 174
215 233 705 168 172 175
216 233 704 168 173 175
217 233 703 168 172 175
219 233 703 168 172 175
220 233 702 168 172 175
222 233 703 169 173 174
224 233 703 168 172 173
225 234 703 169 173 174
227 234 703 169 173 176
228 234 703 169 173 176
229 233 701 169 173 176
231 234 702 168 172 174
233 233 701 168 172 173
234 233 700 167 171 172
235 233 700 167 171 172
237 233 699 165 169 170
238 232 697 165 169 170
239 232 695 164 168 169
239 231 692 164 168 169
240 230 689 165 169 170
241 230 687 165 169 170
241 229 684 164 168 169
242 228 681 163 167 168
242 227 677 161 165 166
242 225 672 161 165 166
241 223 666 161 165 166
240 221 658 161 165 166
237 217 648 160 164 165
235 213 636 159 163 164
230 209 621 158 162 163
227 204 608 158 162 163
225 201 599 158 162 163
224 199 593 158 161 162
224 198 588 158 162 163
224 197 585 159 163 164
225 196 583 159 163 164
225 196 581 158 162 163
226 196 580 158 162 163
227 195 579 158 162 163
228 195 579 159 163 164
229 195 577 159 162 163
230 195 576 157 161 162
231 194 575 157 161 162
232 194 573 158 162 163
233 194 572 159 163 164
234 194 572 159 163 164
235 194 572 159 163 164
237 194 573 159 163 164
238 194 573 159 163 164
239 194 572 157 161 162
241 194 572 159 162 163
242 194 571 158 162 163
243 194 571 158 162 163
245 194 571 160 162 164
246 195 571 161 163 165
248 195 573 159 163 164
250 195 573 158 162 163
251 196 573 157 162 163
252 196 573 157 161 162
254 196 573 157 161 162
255 196 572 155 159 160
257 196 573 155 159 162
258 196 573 154 158 161
260 196 573 156 160 163
261 196 573 155 160 163
262 197 573 156 162 165
264 197 573 155 161 164
266 197 574 154 159 160
268 198 575 155 161 162
269 198 575 156 160 161
271 198 576 154 159 159
272 198 576 157 161 161
274 199 577 157 161 162
276 199 577 158 162 163
277 199 577 157 161 162
279 200 578 158 162 163
280 199 577 157 161 162
282 200 577 157 161 162
284 200 578 157 161 162
285 200 578 156 159 161
287 200 578 156 159 159
289 201 580 157 159 159
291 201 580 159 161 161
293 202 581 158 161 160
295 202 582 156 160 159
223 437 1340 174 178 181
224 436 1334 175 179 182
227 434 1330 175 179 183
229 433 1326 174 179 182
231 433 1325 172 177 181
234 433 1325 173 176 182
237 433 1325 173 176 182
240 433 1324 173 176 182
243 433 1325 173 176 182
245 433 1325 173 176 180
248 434 1325 172 176 179
251 433 1323 171 175 178
253 433 1321 171 174 179
255 431 1316 171 174 180
257 429 1310 170 173 179
255 422 1289 171 174 179
245 402 1227 172 175 179
263 426 1300 170 173 179
268 430 1310 170 173 179
272 431 1315 170 173 178
275 432 1316 171 175 178
277 431 1313 172 176 179
278 428 1305 172 176 179
279 426 1297 172 176 179
278 420 1278 171 175 178
279 418 1272 171 175 178
285 423 1286 171 175 178
290 426 1295 170 174 177
294 428 1302 169 173 176
298 430 1308 170 173 177
302 433 1314 169 173 176
306 434 1319 168 172 175
310 435 1322 169 173 176
313 436 1322 168 172 175
316 436 1324 167 171 175
319 437 1324 168 172 175
322 437 1325 168 172 175
325 437 1326 167 171 174
329 438 1328 167 171 174
331 438 1328 167 171 174
334 439 1328 167 171 174
337 439 1328 168 172 175
340 439 1327 168 172 175
343 438 1326 168 172 175
346 439 1327 169 173 176
348 439 1326 168 172 175
351 439 1326 167 171 174
355 440 1328 165 169 172
358 441 1330 163 167 170
362 442 1333 163 167 170
367 445 1341 165 168 172
213 237 713 166 170 174
213 236 708 167 170 174
214 235 706 169 173 177
215 235 704 168 172 176
216 234 702 169 172 176
217 234 701 168 172 175
218 233 699 167 171 174
219 233 698 168 172 175
221 234 699 169 173 176
222 233 698 168 172 175
224 233 698 169 173 176
226 234 699 170 174 175
227 234 699 171 175 175
229 234 698 169 173 174
230 234 699 168 172 173
232 234 698 167 171 172
233 234 697 166 170 171
235 234 697 165 169 170
236 234 696 164 168 170
237 233 694 163 167 169
238 233 693 163 167 169
239 232 691 163 167 170
239 231 688 163 167 169
240 231 686 163 167 168
241 230 683 163 167 168
242 229 681 162 166 167
242 228 677 161 165 166
242 227 673 161 165 166
242 225 668 161 165 166
241 223 662 160 164 165
240 221 654 160 164 165
238 218 644 160 164 165
234 213 631 159 163 164
230 208 616 158 162 163
226 204 602 158 162 163
225 201 594 158 162 163
223 199 587 157 161 162
223 198 583 159 163 164
224 197 581 159 163 164
224 196 579 159 163 164
225 196 577 159 163 164
226 196 577 159 163 164
227 196 576 158 162 163
228 195 574 158 162 163
229 195 573 157 161 162
230 195 572 158 162 163
230 194 570 159 163 164
231 194 569 161 165 166
233 194 569 160 164 165
234 194 569 162 166 167
236 195 570 161 165 166
237 195 570 159 163 164
238 195 569 156 160 161
239 194 568 158 162 163
241 194 568 158 162 163
242 194 567 157 161 162
243 194 567 159 163 164
245 195 568 158 162 163
247 196 570 156 162 163
248 196 570 155 161 162
250 196 570 155 161 162
251 196 570 156 161 162
252 196 569 156 160 161
254 196 569 156 159 161
255 196 570 155 158 160
257 197 570 156 158 160
259 197 571 156 158 161
260 197 571 156 158 161
261 197 570 157 161 162
263 197 570 157 161 162
264 198 571 157 161 162
266 198 571 157 161 162
268 198 572 157 161 162
269 198 572 155 159 160
271 199 573 156 160 161
273 199 573 157 161 162
274 199 574 156 160 161
276 200 574 156 161 162
278 200 575 156 162 163
279 200 574 157 162 163
281 201 576 158 162 163
283 201 576 157 161 162
285 201 577 156 160 160
286 201 576 155 159 158
289 202 579 156 159 159
290 202 578 157 160 160
292 203 580 156 160 159
222 440 1338 174 178 181
225 439 1334 174 178 181
227 437 1330 175 179 182
229 436 1327 173 178 181
231 436 1325 173 178 181
234 436 1325 172 175 180
237 436 1324 173 177 181
240 436 1324 174 178 182
243 436 1325 174 177 181
246 437 1326 172 176 179
248 437 1325 171 175 178
251 436 1324 171 175 178
254 436 1323 171 175 178
256 435 1319 170 174 177
257 433 1313 171 175 178
258 430 1303 171 175 178
258 421 1276 170 174 177
268 432 1309 170 174 177
272 435 1317 170 174 177
275 436 1319 171 175 178
278 436 1318 172 176 179
280 434 1314 172 176 179
282 433 1309 171 175 178
282 429 1296 172 176 179
280 423 1277 172 176 179
282 421 1273 171 175 178
287 425 1284 169 173 176
292 428 1291 168 172 175
296 430 1298 167 171 174
301 434 1309 168 172 175
306 436 1316 167 171 174
310 438 1321 167 171 174
313 439 1322 168 172 175
316 439 1324 170 174 177
319 439 1324 169 173 176
322 440 1325 167 171 174
325 440 1325 167 171 174
329 441 1327 167 171 174
331 441 1327 168 172 175
335 442 1328 167 171 174
337 442 1328 167 171 174
340 442 1327 167 171 174
343 442 1327 167 171 174
346 442 1327 166 170 173
349 442 1326 165 169 172
351 441 1324 163 167 170
354 442 1326 161 165 168
357 442 1326 162 166 169
361 443 1328 164 168 171
365 444 1331 164 168 171
370 448 1341 165 169 173
208 243 726 163 167 170
213 239 713 166 169 175
213 238 709 166 169 175
214 237 706 169 172 178
214 236 703 169 172 177
215 235 701 167 171 174
216 234 698 167 171 174
217 234 696 168 172 175
218 234 695 167 171 174
219 233 694 167 171 174
221 234 695 169 173 174
223 234 695 168 172 173
225 234 695 169 173 174
226 234 695 170 174 175
228 234 695 168 172 173
229 234 695 168 172 173
231 235 695 167 171 172
232 234 694 167 171 172
234 234 694 166 170 172
235 234 693 165 169 172
236 234 692 164 168 171
237 233 690 163 167 170
238 233 689 163 167 169
239 232 686 162 166 167
240 232 685 162 166 167
241 231 682 163 167 168
241 230 679 162 166 167
241 229 675 162 166 167
242 228 672 162 166 167
242 227 668 161 165 166
242 225 663 160 164 165
241 223 657 160 164 165
240 221 649 161 165 166
237 217 638 161 165 166
233 212 623 161 165 166
228 206 606 160 164 165
225 203 594 159 163 164
224 200 587 160 164 165
223 199 582 161 165 166
223 198 579 159 163 164
224 197 577 160 164 165
224 197 575 159 163 164
225 196 574 159 163 164
227 196 574 158 162 163
227 196 572 159 163 164
228 195 570 158 162 163
229 195 569 157 161 162
230 195 568 160 164 165
231 195 567 161 165 166
232 195 567 161 165 166
233 195 567 160 164 165
235 195 568 160 164 165
237 195 568 159 162 163
238 195 567 158 162 163
239 195 566 157 161 162
240 195 566 159 163 164
240 195 564 158 162 163
242 195 564 157 161 162
244 195 565 156 160 161
245 196 566 157 161 162
247 196 566 157 161 162
248 196 566 156 160 161
250 196 566 156 160 161
251 196 566 156 160 161
252 196 566 154 157 159
254 196 566 154 156 158
255 196 566 154 156 158
257 197 567 153 156 158
258 197 567 156 158 160
259 197 566 157 159 161
261 197 567 157 159 161
263 198 568 157 161 162
265 198 568 156 160 161
266 198 569 156 160 161
268 199 570 157 161 162
270 199 571 155 159 160
272 200 572 156 160 161
274 200 573 157 160 161
276 201 573 157 161 162
278 201 575 158 162 163
279 202 575 158 162 163
281 202 575 158 162 163
283 202 576 157 160 161
284 202 576 154 158 157
285 202 575 153 157 156
287 202 575 156 160 159
289 203 576 156 159 159
291 204 578 156 159 159
223 443 1340 175 178 182
225 442 1335 174 178 181
227 441 1331 173 177 180
229 440 1328 174 178 181
232 439 1326 173 177 180
235 440 1327 172 176 179
237 439 1326 172 176 179
240 439 1325 173 177 180
243 440 1326 173 177 180
246 440 1326 172 176 179
249 440 1326 172 176 179
251 439 1324 169 173 176
254 439 1323 170 174 177
256 438 1320 170 174 177
258 437 1316 169 173 176
259 434 1308 170 174 177
256 425 1278 170 174 177
254 417 1256 170 174 177
268 435 1309 170 174 177
272 438 1317 171 175 178
276 439 1321 172 175 178
279 440 1322 172 176 179
281 439 1320 172 175 179
283 438 1316 170 174 177
284 436 1308 171 175 178
285 433 1299 171 175 178
283 425 1275 170 174 177
284 423 1269 169 173 176
289 427 1280 168 172 175
294 430 1288 168 172 175
300 434 1301 167 171 174
305 438 1311 168 172 175
309 440 1319 168 172 175
313 441 1321 167 171 174
316 442 1324 168 172 175
319 442 1324 167 171 175
323 443 1326 166 171 175
325 443 1325 166 171 174
328 444 1326 166 171 174
332 444 1327 166 171 174
335 445 1328 167 171 174
337 444 1327 167 171 174
341 445 1328 167 171 174
343 445 1327 166 170 173
346 445 1326 164 168 171
348 444 1325 163 167 170
351 444 1324 163 167 170
354 444 1324 164 168 171
357 445 1324 164 168 171
360 445 1325 164 168 171
364 446 1327 164 168 171
368 448 1333 164 168 171
374 451 1342 165 169 172
209 243 722 164 168 171
213 239 707 166 170 173
213 238 704 166 170 173
214 237 701 167 171 174
215 236 698 165 169 172
215 235 695 165 169 172
216 234 693 168 172 175
217 234 692 168 172 175
219 234 692 168 172 174
221 234 692 168 172 173
222 235 692 167 171 173
224 235 692 167 171 172
225 235 692 167 171 172
227 235 692 166 170 171
228 235 692 167 171 172
230 235 692 166 170 171
231 235 691 167 171 172
232 235 690 166 170 171
234 234 689 165 169 170
235 234 688 164 168 169
236 234 687 164 168 169
237 234 686 164 168 169
238 233 683 164 168 169
239 233 682 164 168 169
240 232 680 162 166 167
241 231 677 162 166 167
241 230 673 163 167 168
241 229 670 162 166 167
241 228 666 161 165 166
241 227 662 161 165 166
241 225 657 161 165 166
241 223 652 160 164 165
239 220 643 160 164 165
236 216 630 161 165 166
231 210 613 162 166 167
226 205 597 163 167 168
224 202 587 163 167 168
223 200 581 162 166 167
223 198 577 161 165 166
223 198 575 161 165 166
224 197 573 160 164 165
225 197 572 160 164 165
226 197 571 158 162 163
227 197 570 157 161 162
228 196 569 156 160 161
229 196 568 157 161 162
229 195 566 159 163 164
230 195 565 159 163 164
231 195 565 160 164 165
233 195 565 159 163 164
234 196 565 159 164 165
235 196 565 158 162 163
236 195 564 157 161 162
238 196 564 157 161 162
239 195 563 159 163 164
240 196 563 160 164 165
241 196 563 158 162 163
243 196 563 156 160 161
244 196 563 156 160 161
246 196 563 157 161 162
247 196 564 156 160 161
248 196 563 155 159 160
249 196 562 155 159 160
251 196 562 154 158 159
252 196 562 153 157 158
254 196 562 152 156 157
255 197 563 153 157 158
257 197 563 155 157 159
258 197 563 156 158 161
260 197 563 156 158 162
262 198 565 158 160 164
263 198 565 156 158 162
266 199 567 156 158 160
268 200 569 157 159 161
270 201 571 157 159 161
273 202 573 157 159 161
275 202 574 156 158 160
282 204 577 156 158 160
284 204 577 156 158 160
223 446 1339 172 178 181
225 444 1334 171 177 180
227 444 1331 171 177 180
230 443 1329 171 177 180
232 442 1327 172 177 180
235 443 1327 172 176 179
238 443 1327 171 175 178
240 442 1325 170 174 177
243 443 1326 170 174 177
246 443 1326 171 175 178
249 443 1326 171 175 178
251 443 1325 168 172 175
254 443 1325 167 171 174
257 442 1324 168 172 175
259 441 1319 169 173 176
260 439 1313 169 173 176
260 435 1300 170 174 177
266 435 1299 171 175 178
272 440 1315 171 175 178
276 443 1322 171 175 178
279 443 1324 172 176 179
282 443 1322 172 176 179
284 443 1321 171 175 178
287 442 1318 170 174 177
288 440 1311 168 172 175
288 436 1300 168 172 175
287 430 1282 168 172 175
285 423 1261 169 173 176
291 428 1276 167 171 174
295 430 1280 167 171 174
303 437 1302 167 171 174
309 442 1315 166 170 173
313 444 1321 167 171 174
317 445 1324 166 170 173
320 446 1325 167 172 175
323 446 1326 167 173 176
325 446 1325 165 171 174
329 447 1326 164 170 173
331 447 1326 165 170 173
335 447 1327 166 170 173
337 447 1326 165 169 172
340 447 1326 164 168 171
343 447 1326 164 168 171
346 448 1326 164 168 171
349 448 1326 162 166 169
351 447 1324 162 166 169
354 448 1325 163 167 170
357 448 1324 163 167 170
360 448 1324 163 167 170
363 448 1324 163 167 170
367 449 1328 162 166 169
371 451 1332 163 167 170
379 457 1350 163 167 170
211 243 716 163 167 170
213 240 707 164 168 171
213 239 703 163 167 170
214 237 697 164 168 171
215 236 694 164 168 171
216 235 691 167 171 174
217 235 690 167 171 174
218 235 689 167 171 174
220 235 689 166 170 173
221 235 689 167 171 174
223 235 689 167 171 172
224 235 688 167 171 172
226 235 688 166 170 172
227 235 688 166 170 172
229 235 688 165 169 171
230 235 688 163 167 169
232 235 687 163 167 168
233 235 686 164 168 169
234 235 685 164 168 169
235 235 684 165 169 170
236 234 682 165 169 170
237 234 681 165 169 170
238 233 678 163 167 168
239 232 676 162 166 167
240 232 674 161 165 166
240 231 671 161 165 166
241 230 668 162 166 167
241 229 665 162 166 167
241 228 661 162 166 167
241 226 657 161 165 166
241 225 652 160 165 166
240 223 645 162 166 167
238 219 635 163 167 168
233 214 619 163 167 168
228 208 601 163 167 168
225 204 589 163 167 168
223 201 581 163 167 168
223 200 577 161 165 166
222 198 573 160 164 165
223 198 571 159 162 163
224 197 569 158 162 163
225 197 568 156 160 161
226 197 567 155 159 160
227 197 566 157 161 162
227 196 565 157 161 162
228 196 564 157 161 162
229 196 563 158 162 163
230 196 562 160 164 165
232 196 562 160 164 165
233 196 562 159 163 164
234 196 562 158 162 163
235 196 561 157 161 162
237 196 561 159 162 163
238 196 561 159 163 164
239 196 560 159 163 164
240 196 560 158 162 163
242 196 560 158 162 163
243 196 560 158 162 162
244 196 560 157 161 161
246 196 560 156 160 161
247 196 559 155 159 160
248 196 559 154 157 159
250 196 559 156 158 160
250 196 558 155 157 159
252 197 559 153 155 157
254 197 559 155 157 159
256 198 561 154 156 159
257 198 561 155 157 161
259 198 562 156 158 163
262 199 564 157 159 164
263 200 565 156 158 163
266 200 567 155 157 161
269 202 570 156 158 160
223 449 1340 170 175 178
225 447 1334 171 175 178
227 447 1331 171 175 178
230 446 1329 171 175 178
232 445 1327 173 177 180
235 446 1327 172 176 179
238 445 1326 171 175 178
240 445 1325 169 173 176
243 446 1326 168 172 175
246 446 1328 168 172 175
249 446 1328 169 173 176
252 446 1327 167 171 174
255 446 1327 167 171 174
257 446 1326 168 172 175
259 445 1322 169 173 176
261 443 1317 169 173 176
262 440 1306 169 173 176
272 443 1314 171 175 178
276 446 1322 172 176 179
280 446 1324 172 176 179
282 447 1324 172 176 179
285 446 1323 172 176 179
287 446 1321 169 173 176
289 444 1316 167 171 174
291 443 1312 167 171 174
291 439 1299 167 171 174
290 433 1281 167 171 174
289 427 1264 167 171 174
292 429 1268 167 171 174
300 436 1290 166 170 173
308 443 1310 166 170 173
312 446 1317 165 170 173
316 448 1322 164 170 173
319 448 1323 163 169 172
322 449 1324 163 169 172
325 449 1324 164 170 173
328 449 1325 164 170 173
331 449 1325 165 170 173
335 450 1327 165 169 172
338 450 1327 164 168 171
341 451 1327 163 167 170
343 451 1327 162 166 169
346 451 1326 162 166 169
349 451 1326 162 166 169
352 451 1325 162 166 169
355 451 1325 161 165 168
357 451 1324 161 165 168
360 451 1325 162 166 169
363 451 1324 161 164 169
367 452 1326 163 166 172
370 453 1328 163 166 172
375 455 1335 162 165 171
383 461 1352 163 166 172
210 244 713 163 167 170
211 244 713 162 166 169
215 238 693 165 168 174
215 237 690 165 168 174
216 236 688 165 168 174
217 235 686 167 170 176
219 235 685 166 169 175
220 235 684 166 169 175
221 235 684 167 170 174
223 235 684 167 171 174
224 235 684 166 170 173
226 235 684 166 170 173
228 236 684 165 169 171
229 235 683 165 169 171
230 235 683 165 169 170
232 236 683 164 168 169
233 235 682 163 167 168
234 235 681 163 167 168
236 235 680 164 168 169
236 234 677 164 168 169
237 233 675 164 168 169
238 233 673 162 166 167
239 232 671 161 165 166
239 231 668 162 166 167
240 231 666 163 167 168
240 230 663 162 166 167
241 229 660 162 166 167
241 228 656 160 164 165
241 226 652 162 166 167
240 224 646 163 167 168
238 221 637 162 166 167
235 217 624 161 165 166
231 212 609 161 165 166
226 206 592 160 164 166
223 203 582 160 164 165
222 201 576 160 164 165
222 199 572 159 163 164
222 198 569 157 161 162
223 198 566 157 161 162
224 197 565 157 161 162
224 197 564 157 161 162
225 197 563 158 162 163
226 197 562 159 163 164
227 196 561 158 162 163
229 196 561 158 162 163
230 196 560 160 164 165
231 196 559 161 165 166
232 196 559 160 164 165
233 196 559 159 163 164
234 196 558 158 162 163
236 196 558 158 162 163
237 196 558 160 164 165
238 196 558 159 163 164
240 197 558 158 162 163
241 197 558 158 161 162
242 196 557 159 163 162
243 197 557 158 162 161
245 197 557 157 160 161
246 197 557 155 159 160
247 197 556 155 157 159
249 197 557 156 156 158
250 197 556 157 157 157
252 197 557 157 157 157
253 197 557 157 157 157
255 198 558 153 155 158
257 199 560 154 157 163
259 199 561 155 157 163
261 200 563 155 157 162
264 201 566 155 157 161
267 202 569 154 156 159
225 451 1335 170 174 177
227 450 1331 170 174 177
230 449 1329 170 174 177
232 448 1327 170 174 177
235 448 1327 170 174 177
238 448 1326 169 173 176
240 448 1326 169 173 176
243 449 1327 168 172 175
246 449 1328 168 172 175
250 450 1329 167 171 174
252 450 1328 168 172 175
255 450 1328 168 172 175
258 450 1328 168 172 175
260 449 1325 168 172 175
262 447 1320 170 174 177
263 445 1313 170 174 177
262 438 1291 171 175 178
272 446 1316 171 175 178
276 448 1320 171 175 178
280 450 1325 171 175 178
283 450 1325 171 175 178
286 450 1325 169 173 176
288 450 1325 168 172 175
291 449 1322 167 171 174
293 448 1318 167 171 174
294 446 1312 168 172 175
294 442 1300 168 172 175
292 436 1280 168 172 175
292 431 1265 167 170 174
295 432 1269 166 169 173
306 444 1303 165 168 171
311 447 1311 163 167 170
315 449 1318 162 166 169
319 450 1321 163 167 170
322 451 1323 165 169 172
325 451 1323 165 169 172
328 452 1324 165 169 172
331 452 1324 165 169 172
334 453 1325 165 169 172
338 453 1326 164 168 171
341 454 1327 163 167 170
343 453 1326 162 166 169
346 454 1326 161 165 168
349 453 1325 162 166 169
352 454 1325 163 167 170
355 454 1325 162 166 169
357 454 1324 161 165 168
361 454 1325 162 166 169
363 454 1324 162 166 170
366 454 1325 162 166 170
370 455 1327 162 166 170
374 456 1330 162 166 169
379 459 1337 163 167 170
210 244 709 162 165 171
212 242 703 162 165 171
216 237 686 165 168 172
217 236 684 164 168 172
218 236 682 164 168 172
219 235 680 165 169 172
220 235 679 168 172 173
221 235 679 169 173 174
223 235 679 165 169 170
224 235 679 162 166 167
226 235 679 163 167 168
228 236 680 165 169 170
229 236 679 164 168 169
231 236 679 162 166 167
232 236 679 162 166 167
233 236 678 162 166 168
234 235 676 163 167 168
235 234 673 163 167 169
236 234 671 165 169 170
237 233 669 164 168 169
237 232 667 164 168 169
238 232 665 164 168 169
239 231 663 162 166 167
240 231 661 161 165 166
240 230 658 161 165 166
241 229 655 162 166 167
241 227 651 161 165 166
240 226 646 160 164 165
239 224 639 159 163 164
237 220 629 160 164 165
233 215 614 161 165 166
228 209 597 160 164 165
224 205 584 160 164 165
223 202 576 160 164 165
222 200 571 159 163 165
222 199 568 159 163 164
223 199 566 158 162 163
223 198 564 158 162 163
224 198 562 158 162 163
225 197 561 160 164 165
226 197 560 162 166 167
227 197 559 160 164 165
228 197 558 160 164 165
228 197 557 160 164 165
230 197 557 160 164 165
231 196 556 160 164 165
232 197 556 159 163 164
233 197 556 158 162 163
235 197 556 160 164 165
236 197 556 161 165 167
238 197 556 159 163 166
238 197 555 156 160 163
240 197 555 159 161 165
241 197 554 159 161 165
242 197 554 159 161 165
244 197 555 157 159 161
245 197 555 156 158 160
246 197 554 157 158 160
248 198 555 156 156 158
249 197 554 156 157 158
251 198 555 154 156 157
252 198 555 153 155 156
254 199 557 152 155 158
257 200 559 154 158 161
259 201 561 155 157 160
262 202 564 155 157 159
225 454 1335 171 175 178
227 452 1331 170 175 177
230 452 1329 169 173 176
233 452 1328 169 173 176
235 452 1328 169 173 175
238 452 1328 169 173 176
241 452 1327 170 174 177
244 452 1328 170 174 177
247 453 1329 168 172 175
250 453 1329 167 171 174
252 452 1328 169 172 175
255 453 1329 169 172 175
258 453 1329 169 171 175
261 453 1327 169 172 176
262 451 1322 171 173 177
264 449 1317 170 174 177
265 446 1306 170 174 177
271 447 1308 170 174 177
275 450 1316 171 173 177
280 452 1323 170 172 176
283 453 1324 171 173 177
286 453 1324 169 171 175
289 453 1325 169 171 175
291 453 1325 168 170 174
294 452 1322 169 171 175
296 451 1318 169 171 175
297 450 1313 168 170 174
298 447 1304 168 170 174
297 441 1288 167 169 173
295 435 1268 165 167 171
300 437 1274 164 166 170
309 446 1301 164 168 171
314 450 1312 161 165 168
318 452 1317 162 166 169
322 454 1321 163 167 170
325 454 1322 163 167 170
329 455 1324 162 166 169
331 455 1324 163 167 170
335 456 1325 164 168 171
337 456 1325 163 167 170
340 456 1325 162 166 169
343 456 1325 161 165 168
346 456 1325 161 165 168
349 456 1325 159 163 166
352 457 1325 158 162 165
355 457 1325 158 162 165
358 457 1325 159 163 166
361 457 1325 160 164 167
363 457 1324 161 165 168
367 457 1325 163 167 170
370 458 1326 161 165 168
373 459 1328 162 166 169
377 460 1331 163 167 170
383 464 1341 163 167 170
210 244 703 163 167 170
211 243 700 161 165 168
216 237 681 162 166 169
216 236 678 165 169 172
217 235 675 166 170 173
218 235 674 166 170 173
220 235 674 167 171 173
222 235 675 164 168 171
223 235 675 163 167 170
225 236 675 164 168 171
227 236 676 164 168 171
228 236 675 163 167 170
229 236 675 163 167 170
231 236 675 162 166 169
232 236 674 162 166 169
233 235 671 162 166 169
234 234 669 164 168 169
234 234 667 165 169 170
235 233 664 165 169 170
236 233 663 164 168 169
237 232 661 163 167 168
238 232 660 160 164 165
239 231 658 160 164 165
239 230 655 161 165 166
240 229 652 162 166 167
240 228 649 161 165 166
240 227 644 160 164 165
240 225 640 159 163 164
238 222 631 161 165 166
235 218 619 161 165 166
230 213 603 161 165 166
226 208 588 160 164 165
223 204 577 159 163 164
222 202 571 159 163 164
222 200 567 158 162 163
222 200 565 158 162 163
223 199 562 158 161 162
224 199 561 159 162 164
224 198 559 161 162 165
225 198 558 162 163 166
226 198 557 162 162 164
227 197 556 162 163 164
228 197 555 161 163 164
229 197 554 161 163 165
230 197 554 159 163 164
231 197 554 158 162 163
233 197 554 156 160 161
234 197 554 159 163 165
235 197 554 161 164 167
236 197 553 158 162 164
238 197 553 158 160 163
239 197 553 160 162 164
240 197 552 158 161 163
242 198 553 157 160 161
244 198 554 155 159 160
244 198 553 155 159 160
246 198 553 155 157 159
247 198 552 155 157 159
248 198 552 155 157 159
250 198 552 156 158 160
251 199 553 155 157 159
254 200 556 153 156 159
257 201 559 153 157 160
260 203 563 153 155 159
226 457 1336 171 175 178
228 456 1332 169 173 176
230 455 1330 167 171 174
233 455 1328 167 171 174
235 455 1328 168 172 175
238 455 1327 168 172 175
241 455 1327 168 172 175
244 455 1328 168 172 175
247 456 1330 169 173 176
250 456 1329 169 173 176
253 456 1329 170 172 176
255 456 1329 168 170 174
258 456 1330 168 171 175
261 456 1328 170 172 176
263 455 1324 171 173 177
265 453 1319 170 173 177
266 451 1313 169 173 177
261 437 1271 169 173 176
261 433 1260 168 172 175
275 452 1316 168 171 174
280 455 1323 168 171 175
283 456 1325 167 171 174
286 456 1326 168 172 175
289 456 1326 168 172 175
292 457 1326 168 172 175
294 456 1325 167 171 173
297 456 1323 167 169 172
299 455 1319 167 169 173
301 453 1314 167 170 173
302 450 1306 164 168 171
302 447 1296 164 168 171
301 441 1278 165 169 172
305 443 1283 166 170 173
311 449 1300 163 167 170
316 452 1308 163 167 170
321 454 1315 163 167 170
324 456 1318 163 167 170
328 457 1321 162 166 169
331 458 1323 162 166 169
334 458 1324 162 166 169
337 458 1324 162 166 169
340 459 1324 161 165 168
343 459 1324 161 165 168
346 459 1325 160 164 167
349 459 1325 159 163 166
352 460 1325 158 162 165
355 460 1325 158 162 165
358 460 1325 159 163 166
361 460 1325 159 163 166
364 460 1324 161 165 168
367 460 1324 161 166 169
370 460 1324 162 166 169
373 461 1325 161 165 168
377 462 1328 162 166 169
381 464 1333 163 167 170
386 467 1340 161 165 168
209 244 699 162 166 169
211 244 699 161 165 168
216 236 675 165 169 172
216 236 672 166 170 173
217 235 670 166 170 173
219 235 670 166 170 173
220 235 670 165 169 172
222 236 671 164 168 171
224 236 671 163 167 170
225 236 671 165 169 172
227 236 671 163 167 170
228 236 671 163 167 170
230 236 671 162 166 168
231 236 670 163 167 168
232 236 669 164 168 169
233 235 666 164 168 169
233 234 664 164 168 169
234 234 662 164 168 169
235 233 660 164 168 169
236 232 658 163 167 168
237 232 657 162 166 167
238 232 655 160 164 165
239 231 653 160 164 165
239 230 650 160 164 165
240 229 647 161 165 166
240 228 644 160 164 165
240 227 640 161 163 165
239 225 634 161 163 165
237 221 624 161 163 166
233 216 609 160 162 166
227 210 591 160 162 167
224 206 580 161 163 167
223 203 572 160 162 166
222 202 567 160 162 164
222 201 564 161 162 164
223 200 562 162 162 164
223 199 559 160 161 164
223 199 557 160 160 164
224 198 556 160 161 165
225 198 555 160 161 163
226 198 554 161 163 164
227 198 554 161 163 165
228 198 553 160 162 165
230 198 553 160 162 164
231 198 552 159 161 163
232 198 552 159 161 163
233 198 552 160 162 164
235 198 552 159 161 163
236 198 551 158 160 162
237 198 551 159 161 163
238 198 550 160 162 164
239 198 550 158 162 163
241 198 550 156 160 161
243 199 552 155 159 160
244 199 551 155 159 160
245 199 551 155 157 159
246 199 551 155 157 159
248 199 551 156 158 160
249 199 551 156 158 160
251 200 552 153 155 157
254 201 555 153 156 159
257 202 559 152 156 159
261 204 564 153 155 159
228 459 1332 166 170 173
230 458 1330 165 169 172
233 458 1328 165 169 172
236 458 1328 165 169 172
238 458 1328 167 171 174
241 458 1328 168 172 175
244 458 1329 168 172 175
247 459 1330 168 172 175
250 459 1330 168 172 175
253 459 1329 168 172 175
256 459 1329 168 172 175
258 459 1329 168 172 175
261 458 1327 168 170 174
263 458 1325 168 171 175
265 457 1321 168 171 177
267 454 1314 167 170 175
267 450 1300 167 171 174
275 455 1314 168 172 175
279 457 1321 168 172 175
283 459 1325 167 171 174
286 460 1327 168 171 175
289 460 1327 168 171 174
292 460 1327 168 170 173
295 460 1326 167 169 171
298 460 1326 166 168 171
300 459 1324 168 172 175
302 458 1320 166 170 173
304 457 1317 164 168 171
305 455 1309 164 168 171
306 452 1300 164 168 171
303 443 1276 164 168 171
306 443 1275 162 166 169
312 449 1292 163 167 170
318 453 1303 163 167 170
323 456 1311 163 167 170
327 458 1317 162 166 169
331 459 1319 162 166 169
334 460 1321 161 165 168
337 461 1323 161 165 168
341 462 1325 160 164 167
344 462 1326 159 163 166
347 463 1326 158 162 165
349 462 1325 158 162 165
352 463 1325 158 162 165
355 462 1324 157 161 164
358 463 1324 157 161 164
361 463 1324 158 162 165
364 463 1324 161 165 168
